# .PCD v0.7 - Point Cloud Data file format
VERSION 0.7
FIELDS x y z intensity
SIZE 4 4 4 4
TYPE F F F F
COUNT 1 1 1 1
WIDTH 1378
HEIGHT 1
VIEWPOINT 0 0 0 1 0 0 0
POINTS 1378
DATA ascii
43.831596 -3.5979817 -0.59095663 8
58.177685 0.73701501 -0.83835351 32
42.828033 2.4391377 0.025266597 32
56.462944 -2.1733694 -1.005365 28
8.2159691 0.06818299 -0.37558982 2
10.948234 -0.37161705 -0.42590302 3
65.576355 0.64255351 0.33422264 60
99.301613 -8.6651716 -1.2414128 43
13.269888 0.11568473 -0.42420849 2
16.184952 -0.57926387 -0.50258595 1
17.996353 0.16026028 -0.46504483 4
21.488718 -1.7737234 -0.57857454 2
39.694611 -3.3227568 1.4190637 3
25.999443 0.23490748 -0.56463379 5
23.66 -0.87486345 -0.58420521 3
120.66381 7.0670562 2.5070953 63
26.846354 1.487457 -0.53003216 3
31.856033 -2.6919172 -0.6643281 11
39.775387 -1.4199103 2.4791536 17
35.179459 0.32242036 -0.60870576 7
34.818535 -1.3169366 -0.73520952 8
40.386181 -1.3983681 4.0803542 13
37.702621 2.1213999 -0.61807001 13
58.367752 0.54030842 -0.84113884 33
56.714523 -2.3771052 -1.0124066 29
8.2199802 0.044235725 -0.37609327 2
10.946872 -0.40508938 -0.42495266 3
13.289906 0.074164204 -0.42654681 2
16.206562 -0.63209444 -0.50459784 2
121.06252 -5.1354671 -1.3350482 20
18.032513 0.10230123 -0.4680362 4
21.525949 -1.8480989 -0.58136547 2
26.028008 0.14904259 -0.56478995 5
23.688623 -0.95411444 -0.58519804 3
122.12122 6.7302999 2.5285196 63
26.915068 1.4018936 -0.53315753 3
30.750492 -2.6951859 -0.57743293 6
34.363953 -1.3260744 2.3666139 11
35.216312 0.20457764 -0.60786289 7
34.829712 -1.4343884 -0.73301536 8
38.613533 -1.4618338 3.974052 6
37.753662 1.9969313 -0.61744809 13
58.457241 0.34183085 -0.83949828 33
57.360432 -2.6013868 -1.0384606 29
8.2200804 0.020325109 -0.37543842 2
10.949293 -0.43871915 -0.42485964 3
13.282207 0.032579202 -0.42401013 2
16.220076 -0.68467045 -0.50544065 2
115.05241 -5.2718906 -1.1736219 20
18.048635 0.04413658 -0.46846998 4
21.543123 -1.9207761 -0.58193457 2
26.108051 0.063005269 -0.56962234 5
23.701067 -1.0327814 -0.58457416 3
127.86784 6.6057334 2.5815613 63
45.797222 -1.9920752 1.5855639 12
26.955629 1.3144933 -0.53386521 3
30.022413 -2.7275748 -0.51954573 12
35.356506 0.086582825 -0.61396831 7
34.904228 -1.5549976 -0.73537904 8
38.360493 -1.5804727 3.962322 19
37.804276 1.8721458 -0.61680943 13
3.5176752 -0.071569569 0.66188264 3
54.438251 -2.6479197 -0.89249814 28
8.2239285 -0.0036207095 -0.37593806 2
10.9555 -0.47258937 -0.42562234 3
99.651375 -9.7343636 -1.2240471 43
13.297997 -0.0090993503 -0.4256424 3
16.209694 -0.73608428 -0.5027957 2
112.8049 -5.5561652 -1.1068355 20
18.056622 -0.014119208 -0.46787754 4
21.563993 -1.9940143 -0.58293533 2
26.155937 -0.023498612 -0.5715512 5
23.745035 -1.1132336 -0.5871495 3
45.849731 -2.1499138 1.5899229 12
27.01182 1.2275709 -0.53592938 3
29.881775 -2.8142972 -0.50658864 9
34.437222 -1.5600214 2.3750324 18
35.436436 -0.032244161 -0.61602587 7
35.014168 -1.6780158 -0.74028337 8
37.914288 1.7498102 -0.61989486 14
58.857922 -0.057395987 -0.8458969 33
3.5173013 -0.079014204 0.66208863 5
53.961964 -2.8076234 -0.8647114 28
8.2353516 -0.027704427 -0.37874648 2
10.961587 -0.5065226 -0.4263806 3
131.30048 -0.57241738 -0.97371888 60
99.811775 -10.097414 -1.2195083 43
13.305766 -0.05083001 -0.42587879 3
16.230745 -0.78926361 -0.50478631 2
111.024 -5.8500271 -1.0520304 20
18.076307 -0.072537966 -0.46880528 4
21.592506 -2.0682719 -0.58480775 2
101.47821 -10.200025 1.0720701 27
26.191565 -0.11028375 -0.5723837 5
23.77281 -1.1931425 -0.58810586 3
114.78397 -5.9770761 1.4941961 63
27.043825 1.1392179 -0.53592312 3
29.709139 -2.8967912 -0.49123216 9
34.666916 -1.6876271 2.3834984 18
35.547878 -0.15185358 -0.62019378 7
35.079845 -1.7994277 -0.74202341 8
34.297001 -1.6297064 3.7158043 22
38.027874 1.6268423 -0.62319553 14
36.813465 -3.6158481 -0.20279713 4
59.105167 -0.25943923 -0.85109603 33
3.516902 -0.086513899 0.66229522 6
53.908009 -2.9886575 -0.85729319 28
8.2275448 -0.051615309 -0.37577334 4
10.963656 -0.54031497 -0.42627662 3
130.92982 -1.0227721 -0.95361006 60
13.325206 -0.092793278 -0.42819303 2
16.243706 -0.8421461 -0.50560921 2
18.095789 -0.1311087 -0.4697246 4
21.604937 -2.1410398 -0.58490443 2
121.72456 -0.86827654 2.0289464 63
107.08609 -11.148097 1.0499882 27
26.22291 -0.19729124 -0.57284302 5
23.824144 -1.2746943 -0.59145147 3
56.815556 -3.0834472 1.5840263 17
27.075525 1.0506421 -0.53590417 3
29.671106 -2.9927163 -0.48616347 9
38.182167 -2.001188 2.4641273 8
35.658905 -0.27225578 -0.6243301 7
35.12915 -1.9203959 -0.74260253 8
28.295536 -1.4151235 3.3426137 7
38.101162 1.5015292 -0.62397921 14
32.924274 -3.3228056 0.0048342831 3
59.239819 -0.46218842 -0.85137117 33
3.5164986 -0.093640111 0.66249198 6
53.834042 -3.1589658 -0.84918219 28
8.2349854 -0.074574359 -0.37745327 4
10.969604 -0.57271159 -0.42707509 3
130.94176 -1.452482 -0.94188553 100
33.692276 -3.49103 0.72194254 20
13.332707 -0.13264214 -0.4284761 3
16.268484 -0.89332044 -0.50823665 2
56.099506 -3.2614324 0.31751922 9
18.115095 -0.18695085 -0.47071522 4
21.617493 -2.2104433 -0.58509624 2
121.65279 -1.2663711 2.0399225 63
26.257977 -0.28025922 -0.57376856 5
23.875416 -1.3527201 -0.59489262 3
106.0959 -6.2289829 1.5274287 63
27.146582 0.96773499 -0.53940439 3
29.629322 -3.083066 -0.48093924 6
34.686058 -1.9157878 2.3907502 15
35.721676 -0.38684088 -0.62540668 7
35.242088 -2.0398164 -0.7478739 8
27.333855 -1.4484978 3.2850206 7
38.165791 1.3818288 -0.62441468 14
3.5088851 -0.10055158 0.66621327 6
53.870586 -3.3451786 -0.84614861 28
8.2385044 -0.098667331 -0.37794271 4
10.971442 -0.60652995 -0.42696518 4
33.651981 -3.6005747 0.72613299 20
13.33217 -0.17442091 -0.42731103 3
16.269232 -0.94561005 -0.50731051 2
109.21826 -6.8667855 -0.97670436 20
18.138147 -0.24584949 -0.47212711 4
21.633368 -2.2838767 -0.58561707 5
120.83547 -1.6740981 2.0490503 63
33.480553 -3.5587339 1.480798 13
26.320595 -0.3682456 -0.5770728 5
23.878519 -1.4318267 -0.59341365 3
56.190125 -3.4221244 1.5956719 17
27.217529 0.87990022 -0.54276705 3
29.602545 -3.1798754 -0.47677442 6
34.654957 -2.0303593 2.3935895 3
35.839855 -0.5087266 -0.63002092 7
35.31044 -2.1630218 -0.74982768 8
27.244602 -1.5336988 3.2823682 9
38.266171 1.2564993 -0.62689185 14
33.381065 -3.5924287 -0.013908333 10
59.451176 -0.85949951 -0.84966123 34
3.5084136 -0.10802158 0.66642058 7
65.104851 1.9496689 -0.80430228 63
51.781853 -3.386301 -0.74168628 27
8.2419405 -0.12282843 -0.37842917 2
10.984854 -0.64126939 -0.42942151 3
13.347239 -0.21660274 -0.42891476 3
16.281641 -0.9988035 -0.50811327 2
18.157022 -0.30485409 -0.47302151 4
21.652924 -2.3579495 -0.5865671 5
119.48888 -2.0666709 2.0562768 63
26.359001 -0.45618063 -0.5782091 5
23.857517 -1.5093042 -0.58953357 3
51.675785 -3.3112223 1.6059837 14
27.240372 0.79021907 -0.54202479 3
29.563559 -3.2751257 -0.47170568 6
38.043068 -2.3718629 2.4725425 4
35.905727 -0.63040793 -0.63115209 7
35.414173 -2.2892058 -0.75430638 8
27.206869 -1.6216753 3.2829745 16
38.334198 1.1295557 -0.62736064 14
33.451607 -3.7139413 -0.014908279 7
60.047188 -1.0737803 -0.86983532 34
3.5186603 -0.11637307 0.66135967 7
51.602375 -3.5501792 -0.72857642 27
8.2491217 -0.14707331 -0.38006783 2
10.990349 -0.67545372 -0.43016085 3
13.358228 -0.25874519 -0.42982069 2
16.297808 -1.0523478 -0.50948876 2
51.582829 -3.514801 0.44292176 9
18.17173 -0.36387974 -0.47340202 4
21.680101 -2.4331453 -0.58838546 5
119.42874 -2.4775145 2.0677285 63
59.379986 -6.895401 1.3486205 13
26.3971 -0.54440284 -0.57933068 5
23.883884 -1.5901679 -0.59043431 3
27.294779 0.70118612 -0.54399258 3
29.587601 -3.3778839 -0.47143883 9
37.9944 -2.4968553 2.475379 4
35.959198 -0.75227475 -0.63146609 7
35.537334 -2.4175861 -0.76016814 8
27.248484 -1.7148833 3.2886188 11
38.409775 1.0023572 -0.62830216 14
43.879501 -5.0942678 -0.55734026 8
3.5073967 -0.12288586 0.66683632 7
51.780964 -3.7399058 -0.73253918 27
8.2409086 -0.1708561 -0.3770895 2
10.991833 -0.70937091 -0.43004104 4
125.31598 -3.1175401 -0.78069437 60
13.373004 -0.30109942 -0.43141341 2
16.309839 -1.1057224 -0.51027894 2
104.77809 -7.6692152 -0.83824211 20
18.190195 -0.42312518 -0.47428161 4
21.691227 -2.5065589 -0.58843768 11
119.96297 -2.9028409 2.0813229 63
26.434893 -0.63286775 -0.58044022 5
23.917904 -1.6718161 -0.5921213 3
56.090889 -3.9909999 1.6124676 69
27.352865 0.61186868 -0.54628336 3
29.579605 -3.4768674 -0.46876061 9
38.711052 -2.6777639 2.4954238 8
36.032196 -0.87505955 -0.63308436 7
35.715721 -2.5510955 -0.76994729 8
27.257917 -1.8061007 3.2922602 9
38.504871 0.8750869 -0.63045448 14
33.936161 -4.001689 -0.034833245 3
60.361954 -1.4918609 -0.87217677 34
3.5140085 -0.13099447 0.66353399 7
45.904472 -3.4527719 -0.44913214 15
8.2479229 -0.19517902 -0.37872279 2
10.985406 -0.74268085 -0.42820677 3
108.17493 -3.0512435 -0.43262294 60
99.367973 -12.460217 -1.1426731 43
13.391571 -0.34372079 -0.43369147 3
16.329571 -1.1598681 -0.51221579 2
104.42783 -8.0047731 -0.81986064 20
18.20845 -0.48253292 -0.47515219 4
21.8046 -2.5934711 -0.59987497 8
110.04795 -3.0345881 2.0567679 63
108.19205 -13.51288 1.1091977 27
26.444494 -0.72079366 -0.5790332 5
23.951624 -1.7537786 -0.59379226 3
56.060474 -4.1806035 1.6180851 69
27.418613 0.52225387 -0.54923302 3
29.563354 -3.574857 -0.46547487 9
50.557602 -1.2930617 3.5525997 21
36.108742 -0.9985283 -0.63494009 7
35.885632 -2.6852899 -0.77911329 8
27.036142 -1.8799624 3.2812536 11
38.611504 0.74734372 -0.63331544 14
3.5098574 -0.1381267 0.66549879 7
8.2548513 -0.21953915 -0.38035342 2
10.990545 -0.77696252 -0.42893648 3
13.386365 -0.38554436 -0.43181461 2
16.337276 -1.2130984 -0.51241624 2
18.234432 -0.54228526 -0.47702864 4
21.909727 -2.6800795 -0.61040914 5
120.49905 -3.7478855 2.10693 63
26.489626 -0.80993426 -0.58083314 5
23.977118 -1.8352302 -0.59466058 3
27.45616 0.43189728 -0.54979789 3
29.57049 -3.6758111 -0.46398431 3
34.031139 -2.5630715 2.3973315 7
36.172882 -1.1220211 -0.63598877 7
35.108654 -2.7418664 -0.72125417 8
26.917646 -1.9603871 3.2767837 16
38.705723 0.618801 -0.63541847 14
43.709053 -5.5239015 -0.53787076 16
61.02121 -1.9259207 -0.88920879 35
3.5128384 -0.14588374 0.6639539 7
68.22686 0.87531698 -0.89226645 63
8.2578707 -0.24375322 -0.3808288 2
10.991673 -0.81090671 -0.4288083 3
130.05666 -4.5874395 -0.8365618 60
25.406153 -3.1736681 0.97866797 3
13.40857 -0.42848086 -0.43477309 2
16.340851 -1.2660743 -0.51203418 3
18.256233 -0.60211223 -0.47838891 4
22.053894 -2.7729125 -0.62528718 5
120.45303 -4.1622233 2.1186562 63
25.409689 -3.1571565 1.5405979 2
26.538422 -0.89962196 -0.58296973 5
24.018183 -1.9183418 -0.59710133 3
27.501366 0.34128678 -0.5510217 3
39.645287 -1.2600981 3.1393971 14
34.053612 -2.6795516 2.4014115 11
36.33231 -1.249643 -0.64333332 7
33.818905 -2.7486734 -0.62728244 8
26.854601 -2.0447049 3.2758512 4
38.787529 0.48938346 -0.63675034 14
61.764992 -2.1617169 -0.91533834 63
3.5157914 -0.15370616 0.66241038 7
65.731468 0.61998838 -0.79059064 63
54.028217 -4.6496329 -0.82055181 28
8.2646313 -0.26821578 -0.38245317 2
11.000462 -0.84564656 -0.43038478 4
13.40701 -0.47052297 -0.43357989 3
16.387596 -1.3230841 -0.51798052 3
103.04797 -8.9685173 -0.75733441 20
18.265936 -0.66159093 -0.47822589 4
21.961441 -2.8334692 -0.61390907 5
121.08905 -4.6028996 2.1331143 63
26.586901 -0.98963171 -0.58509189 5
24.047047 -2.0006511 -0.5983392 3
27.546257 0.25039434 -0.55223179 3
39.800079 -1.3994769 3.1494169 14
36.019737 -2.9662337 2.4500413 11
36.387589 -1.3741195 -0.64379841 8
27.86511 -2.2211959 3.3434854 10
38.912792 0.35980365 -0.64075875 14
61.761124 -2.3726339 -0.90949011 63
3.5079932 -0.16038503 0.66612959 7
65.433495 0.39379469 -0.77298445 63
39.749077 -3.5062149 -0.14335595 7
8.2521791 -0.29170826 -0.378317 4
10.997458 -0.87927049 -0.4293963 4
13.417109 -0.51310688 -0.43445539 2
16.398666 -1.3770183 -0.51873577 3
18.27939 -0.7212851 -0.4785623 4
21.479233 -2.8370347 -0.55932659 8
45.620533 -1.8186314 1.8383002 17
27.644234 -3.6437385 1.5350251 3
26.595259 -1.0781819 -0.58364415 5
24.063728 -2.0820458 -0.59837699 3
39.600784 -3.4399669 1.6460819 13
27.630688 0.15935279 -0.55680436 3
39.610928 -1.5257193 3.1460803 14
36.048733 -3.0905631 2.454531 15
36.398548 -1.4970483 -0.64135337 8
33.238827 -2.9226253 -0.58107501 8
26.707804 -2.2102544 3.2726941 7
39.021641 0.22925159 -0.64375186 14
40.145153 -5.4665737 -0.34291333 4
61.888283 -2.5893602 -0.90922284 63
3.5145032 -0.16826408 0.6628232 8
37.3708 -3.4053295 -0.028321629 7
8.2626514 -0.31520969 -0.38112265 4
10.998386 -0.91164058 -0.429308 4
121.3896 -5.5120435 -0.63390201 60
13.427154 -0.5537191 -0.43538433 3
16.421608 -1.4296517 -0.52128494 3
39.623756 -3.5961838 0.75867623 6
18.284845 -0.77782077 -0.47796524 4
21.001677 -2.8345068 -0.50537902 5
26.64728 -1.1645614 -0.5862174 5
24.108223 -2.1623774 -0.60129052 3
39.660667 -3.5734 1.6498246 6
27.662975 0.072256863 -0.55709374 3
35.356827 -1.4621369 2.9835572 28
35.966377 -3.1986001 2.4562812 11
36.481136 -1.6174122 -0.64379203 8
33.185299 -3.0240743 -0.57486033 8
39.165955 0.10458131 -0.6490984 14
39.107006 -5.4460292 -0.28624302 4
62.286602 -2.8091879 -0.92073697 63
3.5066607 -0.17490333 0.66654187 9
8.2576895 -0.33905983 -0.37928718 4
11.006816 -0.94648135 -0.43087399 3
117.2795 -5.7265992 -0.54403675 60
49.242558 -7.0636759 0.31850985 10
13.429092 -0.59603953 -0.43487009 3
16.40867 -1.4813957 -0.51857853 3
102.40125 -9.9602232 -0.71332318 20
18.305819 -0.83813637 -0.47929502 4
20.543514 -2.8351014 -0.45360199 7
45.570763 -2.1176872 1.846792 17
106.7363 -15.556118 1.1822282 27
26.718687 -1.2567511 -0.5904212 5
24.116409 -2.2433856 -0.60051316 3
107.41559 -10.384473 1.6448237 63
27.706934 -0.019678442 -0.55825502 3
29.494965 -4.1613784 -0.44849855 9
34.217388 -1.5258377 2.9424984 13
36.566994 -1.7446848 -0.64629209 8
33.17458 -3.1351359 -0.57155687 8
26.433229 -2.3572507 3.2612112 9
39.233997 -0.027529847 -0.64958477 14
57.917965 -2.8013203 -0.73010927 32
3.5023687 -0.18193461 0.66850686 10
8.2641172 -0.36362717 -0.38090196 2
11.019008 -0.98185712 -0.43328729 3
114.46332 -5.9817004 -0.47944614 60
69.099709 -10.264685 -0.23248032 30
13.438749 -0.63886416 -0.43572977 2
16.415239 -1.5351893 -0.51873988 2
102.05166 -10.280442 -0.69543236 20
18.326578 -0.89863712 -0.48061499 4
20.388142 -2.8794959 -0.43543607 7
45.439072 -2.2652609 1.8506958 17
106.83546 -15.947004 1.1928995 27
26.773848 -1.348572 -0.59318662 5
24.124304 -2.3244781 -0.59972769 3
129.17078 -0.41943035 2.7835729 63
27.734627 -0.11182033 -0.55805457 3
29.492115 -4.2613721 -0.44636258 9
34.143692 -1.636747 2.9431274 27
36.648399 -1.8723592 -0.64850348 8
32.965031 -3.2254922 -0.5542956 8
33.00449 -1.5195388 4.9281878 30
26.29343 -2.4313736 3.2553759 7
39.273621 -0.15995815 -0.64834154 14
37.768974 -5.5101752 -0.21117535 8
57.712345 -2.9881361 -0.71615088 32
36.800716 -3.7251117 0.0078045232 21
8.2666349 -0.38803759 -0.38136286 4
11.015533 -1.0156301 -0.43228588 3
113.74702 -6.3367996 -0.45492834 60
92.510262 -14.162788 -0.87882435 43
13.440391 -0.68132299 -0.43520588 2
16.429485 -1.5899543 -0.52004188 3
101.93966 -10.623744 -0.68313825 20
18.335238 -0.95862198 -0.48041579 4
20.346571 -2.9409585 -0.42990771 5
45.88596 -2.4445567 1.8571762 17
26.808786 -1.4396498 -0.59416336 5
24.183355 -2.4112656 -0.60406119 3
121.15674 -0.80756855 2.72469 63
105.1205 -10.889687 1.666791 63
27.805838 -0.20462726 -0.56153804 3
29.473148 -4.358953 -0.44303218 9
34.253193 -1.7573462 2.9509926 41
33.587681 -3.3144667 2.4121037 10
36.709427 -1.9995199 -0.64937943 8
33.06073 -3.3473754 -0.55851758 8
33.18124 -1.6394004 4.9503493 30
21.496 -2.0217726 2.9492054 14
39.416588 -0.29365376 -0.65340537 14
37.185158 -5.5486975 -0.17820406 12
56.839802 -3.1352034 -0.67413372 31
3.5079923 -0.19776545 0.66542751 7
32.990688 -3.4291987 0.18868299 6
8.2652454 -0.4122223 -0.38067159 2
11.027472 -1.0512012 -0.43468884 3
13.449751 -0.72429782 -0.43605545 3
16.435667 -1.6439309 -0.52019024 2
18.347651 -1.0189022 -0.4807142 4
20.257708 -2.9944913 -0.41916993 5
56.693554 -3.2460461 1.9110967 22
49.706238 -7.6157727 1.4557958 14
26.807613 -1.5287539 -0.59194517 5
24.321198 -2.5073631 -0.61625767 6
121.33688 -1.2273202 2.7380633 63
58.840145 -6.2058654 1.6692642 19
27.8568 -0.29765457 -0.56332272 3
29.48535 -4.4615211 -0.4420616 9
34.3064 -1.8754348 2.9566786 13
29.42115 -2.9763284 2.3175168 1
36.797886 -2.1288238 -0.65206051 8
33.052849 -3.4584696 -0.55547953 8
33.12318 -1.747154 4.9481869 30
21.635361 -2.1075771 2.9607892 10
39.56707 -0.42842263 -0.65892023 14
37.114288 -5.6654696 -0.17169498 12
56.198296 -3.2903223 -0.64201188 31
3.5214648 -0.20706351 0.65863454 4
8.2714167 -0.43691045 -0.38227803 2
11.015997 -1.0840501 -0.4319796 4
56.22337 -3.4468281 0.63887066 60
49.667866 -7.8175993 0.32454959 10
13.451094 -0.76682222 -0.4355236 3
16.441658 -1.6979847 -0.52033234 2
18.363802 -1.0795742 -0.48150632 4
20.305998 -3.0702457 -0.42363581 5
56.138767 -3.4046493 1.9141734 22
49.710785 -7.7894793 1.4609088 7
26.829985 -1.6194544 -0.5918377 5
24.415152 -2.5994382 -0.62408715 6
121.07561 -1.6421183 2.7475011 63
27.887512 -0.39070576 -0.56341374 3
29.481438 -4.5616312 -0.43989974 9
34.841866 -2.0239565 2.9815235 14
36.865959 -2.2574546 -0.65341377 8
33.01683 -3.5663502 -0.55049044 8
32.314171 -1.8091949 4.8678923 43
21.413326 -2.1543906 2.9490337 8
39.605309 -0.56242919 -0.65760493 14
35.757893 -5.5709562 -0.099267177 8
57.921383 -3.5937614 -0.70924258 32
3.5277686 -0.21551126 0.65534776 5
8.2736797 -0.46135801 -0.38273218 4
11.023808 -1.1192125 -0.4335244 4
106.0532 -6.9990244 -0.27941871 60
13.456221 -0.80960512 -0.43567672 3
16.467108 -1.7544266 -0.52333289 2
18.383705 -1.1406083 -0.48279384 4
20.279507 -3.1337054 -0.41984838 5
49.576614 -7.9403019 1.4665835 7
26.899733 -1.7135859 -0.59595382 5
24.552225 -2.6973243 -0.63621902 9
120.10506 -2.0425496 2.7503884 63
27.961733 -0.48482051 -0.56717992 3
29.473234 -4.6610618 -0.43743759 9
28.289568 -1.7102978 2.7246814 6
36.957451 -2.3882017 -0.65630484 8
33.028 -3.6796179 -0.54883003 8
32.27541 -1.9147936 4.8677135 43
39.651051 -0.69682074 -0.65676051 14
35.813095 -5.703465 -0.099368758 8
51.808002 -3.3756142 -0.44807956 27
3.5340433 -0.22396415 0.65206271 6
33.468609 -3.8225238 0.17471483 6
8.2796783 -0.4861007 -0.38433295 4
11.027617 -1.1539247 -0.43421507 4
51.701859 -3.5105546 0.73293173 60
13.449409 -0.85152912 -0.43376419 3
16.476635 -1.8091025 -0.52403557 3
18.399431 -1.2014874 -0.48357213 4
20.268469 -3.1997156 -0.41779405 5
56.101276 -3.7856739 1.9252548 44
112.4164 -18.781656 1.2272177 27
26.913496 -1.8041784 -0.5951165 5
24.653336 -2.7918506 -0.64477885 9
120.11692 -2.4570498 2.7622683 63
45.017693 -5.1602249 1.6805323 12
27.959909 -0.57768798 -0.56456459 3
29.441093 -4.756464 -0.43320173 9
33.011036 -3.789629 -0.5452196 8
32.315674 -2.0254941 4.8758183 43
21.309969 -2.2835531 2.9475586 16
39.808094 -0.83415055 -0.66266525 14
35.273201 -5.7346392 -0.069039419 11
51.736141 -3.5473533 -0.44044048 27
3.529597 -0.23101635 0.65403134 6
49.315376 -5.9118924 -0.55648351 16
8.2779531 -0.51027393 -0.38363433 4
11.023549 -1.1876844 -0.43320128 4
21.89399 -3.5019715 1.0993625 3
13.462095 -0.89498144 -0.43528393 3
16.485966 -1.8638804 -0.52473146 2
121.99841 -2.9966509 -0.014048208 63
103.22348 -12.5609 -0.6641196 20
18.426811 -1.2634536 -0.48584327 4
20.253292 -3.2650378 -0.41530156 5
112.48798 -19.192842 1.2388349 27
26.966677 -1.8979408 -0.59778702 5
24.177467 -2.8143206 -0.59601587 6
120.20728 -2.8736413 2.7749374 63
44.89204 -5.2991967 1.6850759 12
28.033468 -0.67261195 -0.56829363 3
28.057154 -1.8818488 2.7213881 23
29.475109 -3.3791759 2.3316731 8
37.194733 -2.6559741 -0.66562515 8
32.993687 -3.899622 -0.54159921 8
32.732552 -2.1632729 4.9233303 14
39.888802 -0.97059613 -0.66393983 14
60.339741 -4.3704352 -0.79444885 35
3.5322511 -0.23906367 0.65249926 7
49.294487 -6.0792265 -0.55140311 16
8.2723265 -0.53412622 -0.38178641 2
11.030987 -1.2229952 -0.43473458 4
13.466773 -0.93788445 -0.43542454 3
16.506874 -1.9202913 -0.52713448 3
108.28616 -3.0231612 0.18674587 63
105.6782 -13.234929 -0.71014208 20
18.450012 -1.3252772 -0.48760495 4
20.226147 -3.3281476 -0.41151068 5
56.073105 -4.1673098 1.9364468 100
27.007593 -1.9911295 -0.59938622 5
23.48461 -2.8052959 -0.52578795 9
120.59606 -3.2993147 2.7904994 63
57.761894 -7.0852594 1.6988409 18
28.062862 -0.76669496 -0.56832993 3
21.813028 -3.5916381 0.14024085 27
27.926596 -1.9653857 2.7191579 23
36.329769 -2.7131732 -0.60634339 8
32.995747 -4.0120497 -0.53935659 8
21.393248 -1.4297343 3.7412968 10
40.012928 -1.1089089 -0.66784197 14
21.848839 -3.5830431 0.62066269 22
27.588085 -3.1286607 5.9976625 4
45.964886 -3.4470952 -0.19117418 26
3.5385311 -0.24694026 0.64919692 7
49.231613 -6.2240839 -0.54480612 16
8.2820768 -0.55694306 -0.38459659 4
11.023243 -1.2529213 -0.43296722 4
45.907337 -3.5527329 0.85237694 33
21.846468 -3.6336915 1.1042655 12
13.479487 -0.97736394 -0.4370544 3
16.543957 -1.9737738 -0.53196955 3
57.426483 -7.2612991 0.39178073 9
18.481379 -1.3820451 -0.49052975 4
20.227354 -3.389632 -0.41094646 5
21.757874 -3.6027279 1.5862783 14
27.056841 -2.0763955 -0.60193121 5
122.08405 -3.7204609 2.8155422 63
44.970634 -5.6024404 1.693931 12
28.10816 -0.8522619 -0.56994867 3
21.840862 -3.6630607 0.13932689 12
28.119249 -2.0645049 2.7296145 18
44.331444 -5.4889617 2.6983044 15
35.060043 -2.719063 -0.52122748 7
33.00676 -4.1146173 -0.53798628 8
19.98234 -2.3180063 2.8684678 19
40.156944 -1.2353054 -0.67329103 14
21.857065 -3.6509721 0.62168092 9
45.933929 -3.5855861 -0.1862223 26
3.5375228 -0.2548902 0.64942795 7
48.871941 -6.3539796 -0.52395326 16
8.2838221 -0.58270061 -0.38500419 4
11.034094 -1.2905382 -0.43529102 4
45.925793 -3.7185571 0.85661113 33
13.4837 -1.0224947 -0.43712413 3
16.568031 -2.0337639 -0.5348435 3
129.99928 -4.5243196 -0.087955497 63
25.411263 -3.1663256 1.1193293 1
18.495995 -1.4465517 -0.49118441 4
20.234375 -3.4624369 -0.41093206 5
56.051048 -4.5399375 1.9474552 44
21.795496 -3.6867497 1.588446 4
27.061008 -2.1716297 -0.60021001 5
22.699909 -2.8512931 -0.44531992 8
45.871368 -1.5005224 2.089263 63
25.546343 -3.1674492 1.6809617 2
28.180574 -0.95317662 -0.57348722 3
29.396481 -5.1476283 -0.42282352 9
28.087305 -2.1603754 2.7315326 23
27.606777 -3.4244142 2.2957962 4
34.759571 -2.8175654 -0.49876249 7
25.403416 -3.1996634 -0.0062228055 2
21.386272 -1.56592 3.7457042 20
20.056511 -2.3970065 2.8759828 12
40.140244 -1.3770913 -0.66851819 14
33.018696 -5.7987533 0.056029372 14
25.376965 -3.0247483 5.6386042 71
58.726833 -4.8437734 -0.71175498 33
3.5472538 -0.26379254 0.64439052 7
8.281867 -0.6057657 -0.38433254 4
11.049129 -1.3255005 -0.43855906 4
63.904472 -5.4521413 0.53789121 60
39.346497 -7.0742288 0.63468111 5
13.488111 -1.0635376 -0.43731081 3
16.580835 -2.0870771 -0.53615534 3
18.495085 -1.5038135 -0.49000797 4
20.230621 -3.5265734 -0.40982112 5
27.025925 -2.2543871 -0.59524179 5
22.662766 -2.9182203 -0.44042566 8
28.189251 -1.0426159 -0.57194906 3
29.394964 -5.2435484 -0.42106003 9
28.16733 -2.2563567 2.7376835 12
34.587067 -2.9136982 -0.48493597 7
21.043652 -1.6035452 3.7122762 12
25.356604 -3.1760802 3.2264535 13
40.279137 -1.5114357 -0.67348421 14
32.854027 -5.8762026 0.06671036 10
21.097755 -2.5402815 4.9292636 29
58.817997 -5.0434728 -0.71057618 33
3.5319698 -0.26950195 0.65161812 7
8.2834349 -0.63149208 -0.38473666 4
11.044233 -1.360981 -0.43748087 4
108.28611 -9.7590132 -0.2481405 60
39.174957 -7.185358 0.64299333 5
13.495926 -1.1090895 -0.43805757 3
16.604467 -2.147378 -0.53901178 3
27.676949 -3.6579125 1.0732857 3
18.489492 -1.566587 -0.48815554 4
20.209793 -3.5941658 -0.40677923 5
48.072269 -8.8585176 1.5074747 7
27.065142 -2.3528991 -0.59665877 5
22.588913 -2.9871905 -0.43179598 8
45.411777 -1.7920471 2.0937052 63
28.264935 -1.14449 -0.57578498 3
29.383425 -5.347765 -0.41839662 9
27.987419 -2.3389187 2.7336404 17
34.532478 -3.0313632 -0.47850516 7
27.549238 -3.6774669 -0.15175605 9
20.894588 -1.6627971 3.6994002 18
40.381084 -1.6587811 -0.67586815 14
32.079071 -5.8463893 0.10852397 14
21.13472 -2.6185753 4.9392943 19
39.812359 -3.4971356 0.078519844 18
3.5380926 -0.27782443 0.6483317 7
41.753815 -5.8159657 -0.18598059 13
8.2851324 -0.654908 -0.38520804 2
11.074482 -1.3984038 -0.44413042 5
47.560837 -8.9539347 0.42104295 9
13.507895 -1.1509396 -0.43960664 3
16.624714 -2.2020431 -0.54144937 3
125.30317 -5.6350074 0.01177537 63
101.42385 -14.435088 -0.56623101 20
18.507931 -1.6257689 -0.48946398 4
20.189997 -3.6551561 -0.40394026 5
37.9734 -3.3987956 1.8631752 11
48.077835 -9.0201359 1.5122783 7
27.120697 -2.4443617 -0.59971905 5
22.547411 -3.05299 -0.42651802 8
45.521263 -1.9432095 2.0990546 63
28.332699 -1.2371962 -0.57919973 3
29.369486 -5.4414821 -0.41574109 9
35.317242 -3.1128206 3.0346565 14
27.799007 -3.7269113 2.3097208 11
34.482548 -3.1375694 -0.47267017 7
20.86484 -1.7251723 3.6988106 18
25.238354 -3.3295753 3.2253115 100
40.459175 -1.7921869 -0.67717063 14
33.165043 -6.1650958 0.05581513 15
21.113735 -2.6822159 4.9393339 12
3.5405271 -0.28636599 0.64681703 7
41.941696 -5.9952402 -0.19100276 13
8.2827091 -0.68033493 -0.38446116 2
11.065456 -1.4334505 -0.4421953 4
39.588757 -3.7189739 0.98595673 22
43.280609 -8.2771025 0.54010594 9
13.515385 -1.1967313 -0.4403401 3
16.628325 -2.2598257 -0.54143959 3
117.69964 -5.7131362 0.12493972 63
18.529533 -1.6914678 -0.49108499 4
20.172607 -3.723388 -0.40132242 5
57.693279 -5.4703569 1.9798641 22
22.492813 -3.1240828 -0.41985074 8
45.705379 -2.1141973 2.1056409 63
106.31525 -15.461314 1.8004407 63
28.399683 -1.3397553 -0.58232617 3
29.408058 -5.5558777 -0.41684276 9
34.967155 -3.2041371 3.0245585 14
34.435112 -3.2553415 -0.46675479 7
33.087376 -4.6955595 -0.53187072 8
20.897598 -1.8001266 3.7050977 6
19.763329 -2.6194785 2.8669627 15
40.532158 -1.9395363 -0.67782205 15
30.98757 -5.8507409 0.1683677 14
21.005594 -2.7402585 4.9252019 6
37.186016 -3.5064492 0.19327 35
3.5429847 -0.29456699 0.64529258 7
41.181889 -6.02386 -0.1529208 13
8.2879343 -0.70540458 -0.38603792 2
11.060423 -1.4673839 -0.44115752 4
42.988842 -8.3700457 0.55177122 9
13.51508 -1.239619 -0.43976426 3
16.65168 -2.318038 -0.54434776 3
114.60757 -5.9559889 0.17690429 63
49.349445 -7.238657 0.60262352 5
18.547241 -1.7539456 -0.49228725 4
20.182896 -3.7938807 -0.40181029 5
57.844761 -5.6841741 1.9867278 22
47.274689 -9.2049398 1.5250648 7
27.308727 -2.6502485 -0.61235744 5
22.47394 -3.1966839 -0.41679958 8
56.93351 -2.8577032 2.224788 63
106.50568 -15.864498 1.8121216 63
28.414789 -1.4353005 -0.58125991 3
29.451065 -5.6665874 -0.41836777 12
32.740105 -3.1960645 -0.35484892 7
33.055065 -4.8038998 -0.52736193 8
27.114151 -2.4826283 4.3639755 6
19.749836 -2.6829376 2.8686714 10
40.676708 -2.0845473 -0.68292832 15
31.064816 -5.9740477 0.16672488 10
36.934994 -3.6068616 0.20677069 17
3.5525076 -0.30399731 0.64027518 7
56.917252 -3.125344 -0.35398418 50
8.2892609 -0.73008347 -0.38646698 2
11.059133 -1.5019242 -0.44096434 4
42.834 -8.4893684 0.55974352 9
13.530295 -1.2842659 -0.44191739 3
16.686548 -2.3783276 -0.54894912 6
56.835297 -3.0835936 0.9391948 44
101.94434 -15.605177 -0.5482676 20
18.572613 -1.8174291 -0.49447504 4
20.169569 -3.8596056 -0.39971632 5
44.657314 -4.4954205 1.9146162 17
47.41452 -9.4004765 1.5296984 7
27.501419 -2.7626846 -0.62740552 5
22.321127 -3.2480147 -0.40053439 5
56.859077 -3.0478907 2.2297375 63
125.36335 -19.164528 1.8531535 63
28.421597 -1.530472 -0.57952356 3
29.321787 -5.7418909 -0.4071213 12
21.932676 -2.082623 2.4977629 18
33.026318 -4.9126759 -0.52312374 8
19.736126 -2.7463067 2.8703816 12
40.713097 -2.2243271 -0.68157637 15
30.887281 -6.0452433 0.17791447 7
15.244509 -2.0157483 3.966625 24
37.267914 -3.7678578 0.1963526 17
3.5443251 -0.31005281 0.64398277 7
38.808014 -5.9217906 -0.038481656 7
8.2830191 -0.75268954 -0.38464129 2
11.069557 -1.5367088 -0.44335794 4
102.24142 -10.963922 -0.091172062 60
42.688168 -8.6021776 0.56725961 9
13.54558 -1.3269377 -0.44412664 3
16.674709 -2.4285932 -0.54681045 5
112.85157 -6.6237946 0.22136936 63
18.586248 -1.8767872 -0.49525177 4
20.121689 -3.9145768 -0.39386722 5
44.530647 -4.6267452 1.9182489 17
46.975773 -9.4678574 1.5356908 7
27.147614 -2.8110402 -0.59455377 5
22.082321 -3.2807298 -0.37586591 8
106.53467 -6.174798 2.7522197 63
49.813213 -7.6118522 1.739666 12
28.476097 -1.623958 -0.58187795 3
29.111372 -5.7941871 -0.38997006 18
31.653145 -3.19684 2.9000108 27
49.760258 -7.5684171 2.8763361 8
33.661968 -3.5141935 -0.40914074 15
32.986256 -5.0139356 -0.51823306 8
20.872976 -2.0001154 3.7106581 12
19.770021 -2.8138995 2.8751466 3
40.888885 -2.3661323 -0.6887092 15
30.706772 -6.1094022 0.18911174 5
15.369986 -2.0819323 3.9903052 17
33.151333 -3.4355652 0.36730212 16
3.5466387 -0.31870961 0.6424728 7
60.033615 -3.7148571 -0.4561207 100
38.805775 -6.0622544 -0.035110015 7
8.2878513 -0.77908909 -0.38617417 2
11.056184 -1.5710875 -0.44056812 4
42.421688 -8.7033987 0.5783146 9
13.560242 -1.3739812 -0.44620219 3
16.669661 -2.4854476 -0.54563892 5
56.233429 -3.4338248 0.95785505 44
49.614223 -7.7965727 0.61072218 11
18.591124 -1.9413816 -0.49484706 9
20.122795 -3.9867649 -0.39337608 5
47.202736 -9.690691 1.5403775 7
26.365234 -2.8167498 -0.52398968 5
54.939854 -3.3155921 2.2210405 63
28.513771 -1.726243 -0.58262146 3
29.054886 -5.8883295 -0.38410783 12
21.976715 -2.2325051 2.5045123 9
33.609245 -3.6280274 -0.40303952 22
32.963783 -5.1291819 -0.51436305 8
20.821629 -2.0665843 3.7081826 21
20.039104 -2.9259763 2.8958845 8
41.083229 -2.5242019 -0.69658798 15
30.938074 -6.2713552 0.17980857 10
14.99932 -2.0760245 3.9309354 17
3.5491021 -0.32624051 0.64093012 7
8.2815914 -0.80042821 -0.38438228 2
11.055085 -1.6022565 -0.4404718 4
33.560013 -3.679544 1.1078925 20
42.43708 -8.8416328 0.58133286 19
13.563721 -1.4133108 -0.44641715 3
16.677433 -2.5362501 -0.54641265 5
51.780525 -3.3096664 1.0193523 42
102.66508 -16.769226 -0.53575456 20
18.608622 -1.9983863 -0.49619636 9
20.125748 -4.0491524 -0.39319491 5
29.346764 -3.1705844 1.8325959 12
43.266251 -8.9898186 1.5547408 19
25.659809 -2.8129601 -0.4605647 10
21.961426 -3.4052813 -0.36180258 19
51.768032 -3.2749376 2.1924052 63
28.575865 -1.8162653 -0.58573788 3
29.114235 -5.9924059 -0.3870815 18
49.284908 -7.827683 2.8758245 8
33.177475 -3.6799622 -0.37304333 7
32.959362 -5.2304864 -0.51208401 8
41.202637 -2.6576967 -0.70052391 15
14.933939 -2.1092587 3.9224188 16
3.5583732 -0.33652708 0.63594258 7
51.732647 -3.5345838 -0.14685504 48
38.573479 -6.2911267 -0.018418493 7
8.2899046 -0.82848626 -0.38701817 2
11.060453 -1.6415266 -0.44185331 4
42.348114 -8.9870672 0.58784252 9
13.562157 -1.4606472 -0.44569245 3
16.718349 -2.6038711 -0.55194521 6
51.747387 -3.5016394 1.0252489 42
102.97062 -17.220961 -0.53160995 20
18.624506 -2.0675104 -0.49717772 9
20.098463 -4.1185546 -0.38959929 5
29.266663 -3.2697508 1.8353996 12
42.719543 -9.0377045 1.5611305 13
25.288921 -2.8622348 -0.42622569 10
21.806999 -3.4599664 -0.345413 19
51.647125 -3.4606464 2.1968906 63
106.73653 -17.784616 1.8701937 63
28.628384 -1.9250792 -0.58762842 3
29.172844 -6.1171122 -0.38970274 21
49.337002 -8.0252914 2.8836763 8
33.606983 -3.8559935 -0.3977755 7
32.958771 -5.3551345 -0.50965786 8
20.758583 -2.1963673 3.7072134 6
39.491585 -2.6882889 -0.5952031 14
30.515203 -6.3937011 0.20538907 11
14.699485 -2.1239703 3.8859677 12
56.975983 -6.6558561 -0.58927441 32
3.5643156 -0.34482774 0.63265771 7
51.725285 -3.6931527 -0.14235614 48
8.283494 -0.84986156 -0.38522315 2
11.070674 -1.6748657 -0.44428268 4
103.21203 -12.49277 -0.068382077 60
38.765182 -8.3182945 0.68486881 5
13.57318 -1.5010951 -0.44726107 5
16.729631 -2.6556838 -0.55326742 6
103.07369 -17.567392 -0.52498329 20
18.645527 -2.1253262 -0.49900451 14
20.108732 -4.1827774 -0.39025968 5
29.073462 -3.3349574 1.8368715 17
42.917221 -9.2181501 1.5648175 13
25.244259 -2.9330187 -0.42083585 10
21.733315 -3.5132415 -0.33722088 19
46.035061 -3.2092292 2.1409125 63
104.73672 -17.779894 1.8764793 63
28.634178 -2.0117297 -0.58610612 3
29.196331 -6.2142057 -0.39004323 9
21.714298 -2.4117191 2.5008748 27
48.814747 -8.0904617 2.8756292 8
32.985077 -5.462018 -0.50952607 8
23.198517 -3.6587925 3.1158531 8
38.750347 -2.7531106 -0.54829937 14
30.541725 -6.4958291 0.20601045 5
14.688509 -2.1650405 3.8866091 15
49.755798 -5.9381337 -0.29289934 26
3.5594308 -0.35222286 0.63464326 7
21.852308 -3.577415 0.74102491 10
8.2917633 -0.87684029 -0.38788831 2
11.052975 -1.7083936 -0.4406431 4
128.99055 -16.145184 -0.4928363 60
13.567639 -1.5458927 -0.44591036 3
16.727644 -2.7134552 -0.55263841 6
18.649479 -2.1902285 -0.49857315 14
20.10882 -4.2550597 -0.38974628 7
28.886253 -3.4142895 1.8387966 17
39.146454 -8.5203466 1.5777839 6
25.209679 -3.0174823 -0.41611153 10
21.712498 -3.5864892 -0.33411396 19
46.010822 -3.3718059 2.1455786 63
28.678341 -2.1157839 -0.58744609 3
29.204525 -6.3233171 -0.38904318 6
21.780413 -2.495518 2.5062704 31
33.94038 -4.1217089 -0.41414037 15
25.835318 -2.9555616 4.2539396 18
38.688309 -2.8860164 -0.54122365 14
30.408669 -6.5776906 0.21490972 7
14.979549 -2.264823 3.9387136 15
49.725815 -6.1143785 -0.28720188 26
3.5581219 -0.35985658 0.63487256 6
21.796375 -3.6409919 0.74520928 17
8.2811003 -0.89999753 -0.38487762 4
11.062367 -1.7451134 -0.44296172 3
114.09741 -14.653843 -0.23038338 60
38.895462 -8.6298218 0.68858415 10
13.566114 -1.5890555 -0.44530195 3
16.733709 -2.7699909 -0.55321872 6
45.911758 -3.5507593 1.1118395 42
21.822306 -3.6307299 1.2256656 14
18.673252 -2.2548337 -0.5006972 14
20.105507 -4.3232484 -0.38890433 5
28.929522 -3.517431 1.8420823 12
43.263012 -9.6104507 1.5736027 6
25.242496 -3.1065166 -0.41738063 15
21.723389 -3.6618521 -0.33419982 19
45.94276 -3.5229812 2.1495428 63
28.734409 -2.2164485 -0.58988941 3
29.197866 -6.4241295 -0.3870379 9
21.842682 -2.5758038 2.5114157 31
21.793888 -3.5956893 2.1861875 24
33.636925 -4.1973219 -0.39225125 15
21.806587 -3.6582406 0.26276177 18
25.773134 -3.0342045 4.2510509 12
23.175091 -3.8152156 3.1209962 21
38.546734 -3.0055528 -0.52963299 14
30.98867 -6.8194108 0.18813485 17
14.846802 -2.2903969 3.9191539 12
3.5603836 -0.36789364 0.63334686 7
45.848602 -3.7244344 0.080727652 33
21.850922 -3.7211175 0.74434048 6
8.2819042 -0.92360705 -0.38532642 2
11.056565 -1.7773997 -0.44195411 3
57.536415 -7.4603858 0.72377193 60
38.917187 -8.7661562 0.69132906 10
13.560817 -1.6296414 -0.44407284 3
16.751732 -2.8261995 -0.55556732 6
45.843834 -3.6937337 1.1168817 42
18.685385 -2.3150301 -0.50141931 9
20.094975 -4.3863969 -0.3873105 5
44.75333 -5.7179527 1.952257 17
39.457253 -8.8639402 1.5854197 3
25.243948 -3.1873899 -0.41600165 10
21.742477 -3.7352841 -0.33515689 19
21.750198 -3.6725771 1.7083173 9
28.786541 -2.3124449 -0.59212434 3
29.211391 -6.5247593 -0.38661164 6
22.027937 -2.6692524 2.521632 18
21.702982 -3.6489682 2.1862619 20
25.382544 -3.1892154 0.1360739 3
23.287701 -3.9101493 3.1317539 6
38.560482 -3.1309335 -0.52740341 14
31.183634 -6.9690533 0.18049084 10
15.619522 -2.4740186 4.0527782 12
25.441179 -3.1800902 0.69655567 5
3.5589528 -0.3759526 0.63358891 6
64.099548 -5.5068793 -0.56238139 63
38.42392 -6.9264674 0.0033516658 15
8.2823048 -0.94958985 -0.38570052 4
11.053868 -1.8137358 -0.44168246 3
25.526495 -3.2642293 1.2602589 8
38.950855 -8.9194937 0.69411254 10
13.55871 -1.6749626 -0.44339299 3
16.721884 -2.8789239 -0.55097246 5
64.086044 -5.4627562 0.90057373 63
103.56619 -19.14427 -0.4955481 20
18.716141 -2.3841226 -0.50441861 14
16.035212 -3.4765449 0.059397373 3
39.015823 -8.905941 1.5907093 3
25.236097 -3.2754929 -0.41367534 10
21.775623 -3.8189359 -0.33742088 16
37.955437 -3.1388788 2.0691552 45
28.829559 -2.4176407 -0.59340775 3
29.21837 -6.6342931 -0.38557354 6
25.368044 -3.1999373 2.6650891 43
21.779661 -3.7402108 2.1909754 22
31.936392 -5.7251501 -0.42907208 31
25.324747 -3.1469946 4.2106504 112
23.257208 -3.9873703 3.1332161 4
38.517006 -3.2644477 -0.52150011 14
32.474892 -7.3944426 0.11859691 18
14.864659 -2.390372 3.9280157 6
3.5646157 -0.38509735 0.63033336 6
77.08477 -6.9246726 -1.0160086 63
34.667599 -6.337996 0.17439224 6
8.2865677 -0.97496295 -0.38724953 2
11.055195 -1.8491588 -0.44230309 3
38.795097 -9.0203781 0.70158905 10
13.572336 -1.7204412 -0.4454906 3
16.470833 -2.8854814 -0.51433909 6
39.729916 -3.4548721 1.1994039 22
49.265011 -9.1100235 0.65507448 5
18.75491 -2.4515603 -0.5084843 14
25.236401 -3.3605204 -0.41215968 10
22.004538 -3.9372048 -0.3590014 14
37.892277 -3.2617066 2.0723436 45
48.645081 -8.9561024 1.7848538 12
29.015511 -2.531739 -0.60657412 4
29.198969 -6.7324567 -0.38268414 6
25.2971 -3.2752469 2.6651361 37
26.480247 -4.7074313 2.3174264 11
27.560415 -3.6749837 0.0014020073 10
31.575352 -5.7660437 -0.40234384 15
25.309271 -3.2297928 4.2127767 106
21.379976 -3.7118759 3.0091846 8
38.449768 -3.3889799 -0.51438469 14
32.576992 -7.5342164 0.11578684 14
14.824821 -2.4314835 3.9242215 12
3.5668628 -0.39279842 0.62879944 6
34.623985 -6.4380031 0.17876172 13
8.2910852 -0.99796039 -0.38886908 4
11.064713 -1.8827726 -0.44471037 3
27.681221 -3.7386863 1.2294794 8
38.879128 -9.1656475 0.70256317 15
13.578609 -1.7606345 -0.44635361 3
16.209272 -2.8828452 -0.47623003 10
39.623207 -3.5662942 1.2041228 21
103.95921 -19.923275 -0.48495758 20
18.77466 -2.5103431 -0.51025844 14
15.965516 -3.5623364 0.067656778 17
39.165436 -9.2067719 1.5985367 10
25.202105 -3.4321442 -0.4077951 10
21.94523 -3.9928937 -0.35233796 11
38.025032 -3.3898499 2.0773942 45
48.282795 -9.0397434 1.788645 12
29.293182 -2.6463537 -0.62748164 4
29.185469 -6.8218923 -0.38038757 9
26.520105 -4.7968583 2.3213787 13
30.660316 -5.6849055 -0.33795503 7
15.754825 -1.962785 3.1906292 20
37.246521 -3.3909922 -0.44090855 13
32.452316 -7.6073427 0.1239967 14
14.754748 -2.4618542 3.9150031 6
43.902668 -6.1118479 -0.033986568 26
3.5653458 -0.40086728 0.629044 6
37.259266 -3.4998829 0.39951542 18
35.14098 -6.6676965 0.15852663 7
8.2798471 -1.0222332 -0.38581648 2
11.073121 -1.9215332 -0.44695279 4
38.593075 -9.2399263 0.7134968 5
13.58771 -1.807835 -0.44769615 3
15.954135 -2.887754 -0.43905449 9
103.8895 -20.299826 -0.4730739 20
18.804647 -2.5801241 -0.51322293 14
39.212795 -9.3654108 1.6029561 3
25.209122 -3.5224595 -0.4068284 10
22.067123 -4.0957842 -0.36336911 5
38.036041 -3.5263233 2.0816603 45
48.280582 -9.217659 1.7941955 12
29.160398 -2.7363627 -0.61433959 4
29.160334 -6.9238119 -0.37704548 6
25.163036 -3.4215612 2.665417 105
26.490356 -4.8865199 2.3239851 13
34.452103 -4.8879895 -0.43177322 7
30.525845 -5.7695451 -0.32678542 7
15.727531 -2.0124576 3.1901209 18
19.595104 -3.503288 2.8935883 11
36.912052 -3.4904079 -0.41812599 13
32.904762 -7.8418231 0.10395493 15
14.497303 -2.4629078 3.8743339 11
44.20417 -6.3159599 -0.042095996 26
3.5745044 -0.41050425 0.62403935 6
36.965088 -3.5899875 0.41298175 18
8.287816 -1.047075 -0.38853434 2
11.07057 -1.95461 -0.44677436 4
50.265213 -7.3484445 0.86905211 36
38.569935 -9.3652802 0.71736318 5
13.601169 -1.8515081 -0.44983998 3
15.70792 -2.8874655 -0.40321577 12
102.2974 -10.210331 0.47712773 63
49.45636 -9.6521273 0.66455775 5
18.862738 -2.6483867 -0.51980239 14
15.951852 -3.6672299 0.069722272 15
102.99387 -15.265216 2.4029708 63
45.071918 -10.98062 1.5990057 6
25.236744 -3.6076901 -0.40781599 10
22.143192 -4.1828942 -0.36999306 5
44.804993 -4.3328271 2.1644347 63
47.822189 -9.2870598 1.7978765 12
28.262978 -2.736454 -0.5386939 11
29.144999 -7.0180373 -0.37457815 6
25.135509 -3.4980104 2.6671715 90
26.258184 -4.926496 2.3208733 21
34.459442 -5.0014186 -0.4298839 7
30.432287 -5.8511963 -0.31862512 10
15.633923 -2.0471852 3.1822591 18
23.164516 -4.2773266 3.1402228 4
32.685848 -3.1738584 -0.16786698 12
32.739197 -7.9109745 0.11428843 18
13.91186 -2.393213 3.7773705 10
44.017059 -6.4327865 -0.031112289 26
3.5764403 -0.41943499 0.62254447 6
33.119507 -3.3138266 0.55107307 16
30.827881 -6.0217547 0.35551265 9
8.2839766 -1.0725808 -0.38775739 4
11.090172 -1.9959918 -0.45152768 4
49.542301 -7.4195805 0.88578808 36
13.598246 -1.8970869 -0.44913653 3
15.534502 -2.9059622 -0.37794366 11
102.27122 -10.581341 0.48807701 63
48.78997 -9.698431 0.68319863 5
18.903944 -2.7207024 -0.52421051 14
106.78721 -16.232397 2.4431825 63
45.209454 -11.186403 1.6040659 6
25.235224 -3.6971011 -0.40614012 10
22.225212 -4.2794123 -0.37712961 8
44.625515 -4.4747853 2.1672726 63
47.607426 -9.4201641 1.8027527 12
27.440224 -2.7477436 -0.46912634 7
26.231897 -5.0159445 2.3235669 13
34.456722 -5.1251907 -0.42713323 7
15.657468 -2.1040215 3.1872537 11
32.896389 -3.3123744 -0.17743623 12
13.945183 -2.4474044 3.7860861 6
40.126976 -5.985857 0.12697895 18
3.5820124 -0.42835233 0.61928564 6
79.284485 -8.4737272 -1.0586598 63
30.854662 -6.1292653 0.35655555 12
8.2842054 -1.0962211 -0.38819236 4
11.087371 -2.0291235 -0.45134205 4
112.44613 -17.564627 -0.11553346 60
13.61528 -1.9415245 -0.45194733 3
15.49772 -2.9472048 -0.3725152 9
102.33495 -10.926558 0.49697492 63
18.9615 -2.7896893 -0.53075945 14
25.230753 -3.7775006 -0.40437686 10
22.312231 -4.3700199 -0.384859 8
47.509224 -9.5593643 1.8074374 12
27.070433 -2.7942033 -0.43700349 10
15.438475 -3.623739 0.63440877 30
29.401642 -4.3366833 2.8563812 18
34.447483 -5.2361441 -0.42423558 7
29.496525 -5.8653903 -0.25117022 6
15.387031 -3.5992222 0.97376794 24
41.496304 -6.3357596 0.075993411 26
3.5804517 -0.43602341 0.61952215 6
30.805714 -6.2262063 0.36105865 18
8.2879438 -1.1216439 -0.38972744 4
11.091743 -2.065546 -0.45278126 4
49.786648 -7.7951078 0.89124233 36
15.31907 -3.6221647 1.3114654 26
13.643478 -1.9901164 -0.45671648 3
15.468043 -2.9923031 -0.36813593 10
47.823143 -9.8291283 0.71191329 5
18.990883 -2.8575711 -0.5337649 14
15.41315 -3.6861112 0.12958463 20
49.753315 -7.7546163 2.0289557 18
25.213539 -3.8601334 -0.40145421 10
22.343611 -4.4531798 -0.38710114 11
29.329517 -3.065275 1.9929341 33
47.48325 -9.7218533 1.8126246 12
27.080381 -2.8861897 -0.43593311 10
15.437258 -3.6758783 0.63517779 24
27.211857 -4.0854745 2.7658541 17
39.9398 -8.0914612 2.7016511 13
34.472393 -5.358696 -0.42338735 7
29.351046 -5.9367657 -0.23951727 6
16.161728 -3.0427337 2.6688204 7
33.301685 -3.5756223 -0.19598399 12
15.401329 -3.6553006 0.97405022 19
10.385037 -1.7995421 3.1824036 30
41.300373 -6.4475183 0.087196894 26
3.5857997 -0.44578516 0.61629033 6
33.63884 -3.710861 0.54173321 33
30.82173 -6.3425646 0.3628006 18
8.2800579 -1.1464467 -0.387808 4
11.099434 -2.1046872 -0.45499849 4
49.79319 -7.9783459 0.89620847 36
15.344198 -3.6836207 1.3121874 7
13.659477 -2.0391831 -0.45937827 3
15.437696 -3.0397844 -0.36367717 10
18.710289 -2.8764729 -0.49794453 14
15.434095 -3.7469885 0.12749416 9
49.759907 -7.9376092 2.0347509 18
15.262138 -3.650655 1.6463126 24
25.211079 -3.9495659 -0.39975896 10
22.296091 -4.5232849 -0.38158187 8
29.492739 -3.1877861 1.9981323 16
27.05781 -2.9790685 -0.43212596 10
28.572754 -4.4059548 2.8282063 12
16.545656 -3.2014937 2.0693469 3
34.539219 -5.4945331 -0.42507288 7
29.333044 -6.0401669 -0.23648791 10
16.15592 -2.3376071 3.248431 11
33.375656 -3.7029028 -0.19754003 12
10.320168 -1.8201723 3.1735239 30
40.637798 -6.4872975 0.11690303 18
3.5842612 -0.45317003 0.61651671 6
30.948799 -6.4729753 0.35940608 12
8.2724886 -1.1687666 -0.38596264 4
11.084827 -2.1352947 -0.45228755 4
107.42962 -17.908619 -0.0035750559 60
13.668238 -2.0827 -0.46081537 3
15.388939 -3.077805 -0.35657793 10
104.52638 -12.258648 0.5029009 63
18.360376 -2.8752122 -0.45355463 19
19.958679 -5.0421252 -0.36895761 7
106.6512 -17.699707 2.4891446 63
25.186119 -4.0266228 -0.39627397 5
22.300461 -4.5970297 -0.38125429 8
39.096153 -8.2169285 1.7932484 6
26.972645 -3.0551412 -0.42341429 10
22.745918 -5.7834377 0.10102119 13
21.565723 -3.3241403 2.5282779 18
34.568096 -5.6125932 -0.42461646 15
29.297316 -6.1294293 -0.23244266 10
16.108561 -2.37994 3.2456901 9
9.2565651 -1.648821 2.1962044 26
33.557495 -3.832509 -0.20562987 12
33.432789 -8.6856718 0.0913404 18
10.329232 -1.8530012 3.177115 26
40.025024 -6.516911 0.1441952 18
3.5826161 -0.46091953 0.61675525 6
58.409309 -6.9956841 -0.30867124 50
30.980597 -6.5884604 0.36033574 18
8.2759609 -1.1943269 -0.38748997 4
11.100239 -2.1745615 -0.45622835 4
49.481472 -8.2633018 0.91049773 36
37.841141 -9.9972725 0.75614703 9
13.664831 -2.1264169 -0.46015322 5
15.362714 -3.1232989 -0.35276338 16
129.56862 -15.701844 0.23495042 63
42.320347 -9.1059523 0.83629501 5
18.017977 -2.8759856 -0.41011888 23
19.975504 -5.1167049 -0.37058106 7
25.160198 -4.1077538 -0.3926554 10
22.334827 -4.6815867 -0.3838428 8
28.850689 -3.3032267 1.9962672 32
42.830441 -9.188571 1.8113889 24
26.930231 -3.1406326 -0.41812676 10
22.721766 -5.8570185 0.10378835 13
28.545568 -4.591383 2.8341444 12
16.593407 -3.320188 2.0745921 20
34.276989 -5.6811881 -0.40391904 22
29.299152 -6.2322392 -0.23087953 10
16.029276 -2.4193027 3.2396154 5
9.2427654 -1.6745733 2.1965413 24
33.769844 -3.9730089 -0.21533966 12
33.467758 -8.815733 0.09186808 18
10.272305 -1.8732345 3.1694975 26
39.100243 -6.4951558 0.18378156 18
3.5915291 -0.4709006 0.61176437 6
57.74736 -7.1037822 -0.28090739 50
33.253391 -7.2104774 0.2626667 13
8.2757816 -1.2180765 -0.38791475 4
11.100646 -2.2087543 -0.45686436 5
22.036465 -3.5853674 1.340348 6
37.665249 -10.078336 0.76371896 19
13.684924 -2.1722538 -0.46360296 3
15.282871 -3.1537452 -0.34119728 8
126.34127 -15.72591 0.28287089 63
17.695818 -2.8750813 -0.36928567 23
19.943172 -5.1741695 -0.36684018 7
44.3256 -11.906689 1.6343641 13
22.342525 -4.7565551 -0.38387325 8
29.061657 -3.42219 2.0017917 32
42.826908 -9.3321314 1.815946 12
26.903915 -3.2234578 -0.4142651 14
21.930189 -5.710701 0.1626493 12
28.443342 -4.6662416 2.8331907 6
16.45343 -3.3415327 2.0726595 26
29.686882 -6.4184599 -0.25561059 6
9.2369804 -1.7006081 2.1973743 25
38.51001 -4.68749 -0.48764998 14
33.923096 -9.0581207 0.071710244 15
10.246509 -1.8983526 3.1671243 48
3.579248 -0.47645751 0.61723363 7
57.606049 -7.2953105 -0.2706711 50
33.869076 -7.4763527 0.23827933 6
8.275094 -1.2441647 -0.38826355 4
11.10777 -2.248096 -0.45906433 6
37.92041 -10.294143 0.76096541 4
13.688574 -2.2195833 -0.46421519 5
15.228863 -3.1947761 -0.33340266 12
129.6463 -16.620886 0.2600992 63
17.517324 -2.9041023 -0.34641281 23
19.916498 -5.2400517 -0.36372676 7
44.724182 -12.189076 1.6394339 6
21.766956 -3.6601276 -0.096338183 25
22.336639 -4.8361568 -0.38252273 8
28.95751 -3.5117197 2.0037231 16
42.819553 -9.4901485 1.8209778 12
25.44927 -3.1264217 -0.29387 10
22.016567 -5.8166723 0.15731059 20
28.07958 -4.7034783 2.8211656 12
16.417509 -3.3912935 2.0737913 21
21.804281 -3.6519275 0.38353899 19
29.581585 -6.5032277 -0.24670935 10
15.122337 -2.3644843 3.1458561 13
9.2265968 -1.7284474 2.1980252 18
38.552044 -4.8314395 -0.48694843 14
34.227901 -9.2735891 0.059184156 15
10.166066 -1.9142449 3.1555583 30
21.810961 -3.6381474 0.86523426 19
3.5671272 -0.48123854 0.62267679 7
57.502346 -7.4711776 -0.26225838 50
34.956608 -7.8462529 0.19307071 14
8.2709799 -1.267198 -0.38754869 4
11.11553 -2.2841873 -0.46136752 5
21.778618 -3.6868536 1.3484204 20
38.055141 -10.463893 0.76088721 14
13.708328 -2.2656887 -0.46765056 5
15.202832 -3.2371755 -0.32967776 21
57.52483 -7.43437 1.0526272 45
17.484238 -2.9533896 -0.34180132 18
19.918177 -5.3072023 -0.36375868 7
21.735683 -3.6640437 1.8278899 13
44.594955 -12.307417 1.644298 6
21.793917 -3.7351577 -0.097597264 12
22.328295 -4.9076433 -0.38101935 8
25.444496 -3.1387022 1.9621809 13
42.83445 -9.6384478 1.8256416 12
25.379551 -3.1983576 -0.28660998 16
22.119841 -5.92065 0.15064318 15
19.933943 -4.2641592 2.1739023 7
29.952227 -6.6895781 -0.27024922 10
15.06326 -2.4008203 3.1417239 11
9.2906113 -1.7706858 2.2037458 16
34.569424 -9.4898272 0.044675004 15
10.19016 -1.95032 3.1618044 68
3.5688808 -0.48982897 0.62117773 7
34.979549 -7.9755321 0.19468166 14
8.2740974 -1.2928427 -0.38906628 4
11.137954 -2.325726 -0.46695808 8
36.85878 -10.254383 0.79355597 4
13.727511 -2.3140221 -0.47101244 5
15.14531 -3.274292 -0.32141486 19
17.462185 -3.0074279 -0.33856961 23
19.90723 -5.3741937 -0.362423 5
43.986908 -12.294188 1.6494924 6
25.160269 -4.4468145 -0.38743219 5
22.318844 -4.9826565 -0.3793982 11
46.796989 -10.733087 1.8469439 12
25.384089 -3.2843347 -0.28534144 10
21.739079 -5.8876672 0.17936648 12
21.598455 -3.6894519 2.5433276 18
